# .PCD v0.7 - Point Cloud Data file format
VERSION 0.7
FIELDS x y z rgb
SIZE 4 4 4 4
TYPE F F F F
COUNT 1 1 1 1
WIDTH 1448
HEIGHT 1
VIEWPOINT 0 0 0 1 0 0 0
POINTS 1448
DATA ascii
28.207319 30.961205 -82.325081 0
32.125305 29.856079 -82.250519 0
32.811604 29.610271 -81.905304 0
33.756409 27.551409 -82.16629 0
34.24892 24.706207 -81.685211 0
-37.021667 26.382784 -75.801186 0
-35.644356 29.223297 -75.970886 0
-37.741909 28.863203 -73.322609 0
-39.945953 26.918459 -71.173515 0
-42.41124 24.346231 -67.998337 0
-40.195152 29.75835 -67.848633 0
-37.939636 31.905964 -69.555008 0
-39.119274 33.030941 -65.891678 0
-36.573414 35.491066 -66.779129 0
-38.542744 34.587585 -63.696323 0
48.784355 26.275507 -28.081535 0
47.915245 26.80617 -25.941372 0
45.527237 25.297163 -15.145888 0
36.494171 23.473024 13.415701 0
-32.121281 25.08213 15.76879 0
-27.219501 24.696804 24.737991 0
-27.905306 27.313005 20.773438 0
-27.837822 28.216557 19.70512 0
-25.70064 33.647194 15.289169 0
-24.981312 31.946602 19.933159 0
16.337194 27.262753 36.255085 0
-29.559113 25.176579 -82.101982 0
33.141754 25.967396 -81.34523 0
35.865353 37.965366 -68.775925 0
34.441639 39.495281 -67.042 0
-40.108948 32.313984 -64.235168 0
-43.232384 28.143709 -62.082851 0
-42.056229 32.354187 -57.140831 0
-45.320389 29.124825 -41.574722 0
-45.044327 29.431974 -43.27565 0
49.822933 24.507114 -39.454697 0
49.980629 26.273785 -38.582489 0
50.386032 25.782175 -36.991783 0
49.788074 27.890089 -37.008411 0
-41.242348 27.293898 -21.227806 0
47.562668 25.426331 -22.903624 0
-43.09359 23.967392 -13.796269 0
36.770161 29.103827 4.914042 0
34.37748 30.410284 7.8176603 0
-28.473518 33.933029 6.9092298 0
-29.378204 36.694752 2.1753902 0
-27.031746 39.258297 2.69701 0
-26.005093 36.874977 5.4192209 0
-26.964565 35.48737 6.5218668 0
-24.105099 37.405922 7.713335 0
-24.350731 36.470543 10.875745 0
-22.827847 37.476238 11.589855 0
-26.215298 33.486172 13.889665 0
-22.138573 37.229237 14.665129 0
-23.515617 34.932983 17.134624 0
33.383739 27.789057 14.783622 0
32.596489 25.710093 18.991217 0
31.02338 29.265406 18.531462 0
31.888781 28.905334 16.851152 0
26.608582 25.506224 28.994957 0
26.809299 27.44976 26.886871 0
40.538582 29.048168 -72.288788 0
41.128082 30.995731 -68.779602 0
-42.264618 27.774769 -65.502083 0
49.317268 25.575531 -49.545841 0
49.75251 28.012804 -39.760067 0
43.570816 26.314266 -8.3587551 0
-39.558739 26.496693 -4.2988181 0
-38.435287 28.996387 -6.3391919 0
-37.551388 29.884483 -4.4852767 0
-36.907383 29.547798 -1.9794288 0
-33.029217 26.479961 12.058699 0
35.147675 25.253382 14.61988 0
32.894196 26.958206 17.187078 0
31.301664 30.610523 14.394179 0
31.752472 31.385675 12.08772 0
32.688091 34.871925 3.6471176 0
30.166302 39.919876 2.0643678 0
29.082106 37.771587 4.9834042 0
28.510565 40.394825 3.3206065 0
22.435434 45.794628 -3.3932488 0
20.27471 46.459114 0.12090401 0
-30.126717 25.610472 18.542212 0
-16.453026 40.290501 18.663502 0
-18.350285 38.731888 19.438847 0
-14.460239 40.801594 20.251705 0
-14.593041 39.470005 22.155977 0
17.639866 24.884953 36.877113 0
35.828915 29.016153 -78.062904 0
36.11031 31.813169 -75.899338 0
37.820606 28.764137 -76.196922 0
43.064514 30.220963 -66.614647 0
42.788185 31.946148 -64.929123 0
45.958485 27.475933 -63.319225 0
49.161179 27.019367 -51.210617 0
-42.305779 33.579353 -54.081703 0
-45.923157 26.392076 -45.443207 0
45.605453 29.609936 -26.635956 0
45.146118 27.155434 -21.1805 0
-38.500263 30.627281 -21.896063 0
43.086979 26.703896 -6.6949034 0
39.632076 25.344093 4.9145169 0
-34.119751 27.715372 7.7661519 0
-31.389051 27.806858 13.238298 0
-32.349236 29.335304 9.2810869 0
-30.579357 29.518559 11.822875 0
-31.077305 30.635431 9.0028276 0
-28.965057 32.419815 10.30472 0
-28.6842 30.550108 14.045773 0
-19.236973 28.986279 30.213961 0
23.671803 27.51289 30.659651 0
22.82303 25.728868 32.533062 0
-15.08252 28.621197 33.777901 0
-16.855602 29.180927 32.184948 0
-12.047767 32.901741 32.062103 0
-15.728062 31.004047 31.228704 0
-13.705467 32.494236 31.184772 0
24.555609 28.413403 28.993227 0
5.6088977 29.044775 39.96418 0
10.162996 31.915808 35.835979 0
9.390131 27.603346 -82.188576 0
32.974926 28.269142 -81.30381 0
33.573212 28.589794 -80.272789 0
-44.507256 27.483946 -57.340988 0
-43.365871 33.617996 -44.242714 0
-42.548119 35.481781 -41.940445 0
-40.384068 38.680786 -44.583618 0
-39.355179 39.975193 -42.57074 0
-37.531956 42.075432 -45.960999 0
-32.979031 45.754471 -50.214378 0
-32.601166 46.148441 -48.311958 0
-27.719322 48.816097 -48.027897 0
-28.411846 48.899574 -42.004242 0
-30.10626 47.765285 -39.553886 0
-43.747738 32.103859 -37.598164 0
-41.235428 35.250946 -35.558723 0
-41.72308 35.578896 -37.470642 0
-40.44035 37.575855 -38.383705 0
-38.409431 40.829552 -40.030041 0
47.308586 29.228432 -29.788618 0
-38.986057 29.128803 -19.807575 0
-39.300526 33.589706 -27.298458 0
-37.038464 37.125221 -26.991657 0
25.795187 34.714863 21.098248 0
28.945303 30.187374 21.416679 0
-17.882315 32.89423 27.97588 0
-20.861055 32.958504 25.089962 0
-8.8469362 31.490734 34.452156 0
-7.4219513 33.750404 33.030632 0
-5.9811983 36.355938 31.427366 0
4.7224741 35.148872 34.324432 0
6.7723322 37.504295 31.192347 0
4.4333286 38.824886 30.022512 0
0.79628861 40.295353 28.339392 0
-35.989876 30.076626 -74.867294 0
-35.457432 34.92815 -70.124687 0
-34.761936 36.189991 -69.553207 0
-34.948219 37.756786 -65.123779 0
46.267159 29.836662 -59.978065 0
48.093174 32.174774 -45.340809 0
48.481766 31.235491 -46.322796 0
48.748508 29.293392 -48.78566 0
-42.055599 32.440754 -32.464851 0
-38.527214 29.150034 -17.887558 0
36.648659 31.59906 -0.45052764 0
37.389355 29.249189 3.5110602 0
-20.856243 34.283192 23.557674 0
-19.549837 36.662117 21.899162 0
-22.054426 35.834248 18.917374 0
-17.894068 40.136967 14.816461 0
-16.178635 40.851822 16.985657 0
-13.924662 42.18293 14.917172 0
31.869759 29.78134 -81.24707 0
33.410797 31.633186 -79.101837 0
31.035875 32.072517 -81.160454 0
30.264706 35.89463 -79.952782 0
28.68372 39.158463 -79.174583 0
31.261875 37.13142 -77.512589 0
32.057159 39.595558 -72.937988 0
29.994453 41.413357 -74.1996 0
30.380388 42.640598 -70.623535 0
29.478926 43.390724 -71.063202 0
30.837355 43.515923 -68.009117 0
46.286758 35.122509 -44.962559 0
41.362137 29.086262 -18.080994 0
40.235981 29.331881 -15.773617 0
40.210838 29.136488 -13.843631 0
-36.823761 31.183224 -19.334248 0
-34.230831 32.968727 -17.26615 0
-31.474449 36.81741 -18.806509 0
-29.501596 38.343853 -16.927217 0
-29.715971 38.263016 -18.68306 0
-29.10433 39.484982 -17.77776 0
-30.022444 38.438202 -19.965956 0
-27.462727 39.025333 -19.967739 0
-25.133354 40.416786 -21.238539 0
-25.496954 41.63839 -22.67186 0
-23.118418 41.782154 -22.961588 0
-21.386309 41.883728 -22.734911 0
-21.425465 44.056431 -24.374935 0
-21.976593 44.832924 -26.142365 0
-16.939636 44.906113 -23.690247 0
-13.866747 47.445229 -26.602503 0
41.020176 29.389694 -8.5062037 0
-36.040833 32.335835 -6.7819433 0
-34.849648 33.424255 -5.1711721 0
-33.424286 35.408905 -7.1762576 0
-30.900652 37.819225 -9.3972092 0
-30.686283 38.677692 -5.1576009 0
-29.197233 39.576389 -8.604125 0
-25.906527 42.38607 -6.4876189 0
-27.523176 41.017517 -7.0802975 0
-26.275311 41.960514 -5.4838057 0
-23.022535 44.624382 -6.282279 0
-26.435204 43.146267 -9.130888 0
-24.894274 43.534222 -7.347959 0
-25.319513 42.853355 -3.394352 0
-27.641853 41.246769 -3.5438159 0
-34.858925 31.963362 -1.3066583 0
28.585714 33.961895 14.647626 0
23.268332 38.190197 18.435972 0
22.344994 38.986374 16.398418 0
21.764221 39.314636 18.644621 0
19.750353 38.995277 22.028059 0
19.824207 39.947208 19.115715 0
16.221277 40.914948 21.898039 0
14.154604 42.348305 18.354828 0
12.235819 43.829521 16.088705 0
8.987545 45.071735 11.846179 0
13.125387 43.782631 14.980387 0
14.933451 43.910091 13.135648 0
-6.6992707 30.711607 36.436077 0
-4.0185022 31.99069 36.224861 0
-5.4932442 33.18639 34.695301 0
13.465977 32.035645 33.697292 0
-26.892872 34.383545 -82.095306 0
-26.305485 36.544868 -80.924026 0
-27.726469 36.750023 -79.302872 0
31.74544 32.187485 -82.031189 0
30.008259 32.920856 -81.172218 0
37.450924 30.646502 -74.992485 0
43.977859 31.268829 -63.155689 0
46.201061 33.466064 -41.431458 0
45.085655 36.882019 -41.602127 0
47.056957 33.718903 -43.353027 0
46.97686 33.017525 -41.548439 0
48.119686 31.893066 -42.559868 0
41.603329 30.847937 -21.345919 0
39.995823 31.845154 -20.726862 0
-35.745495 33.0625 -20.475744 0
-38.236084 32.230873 -23.568474 0
-36.161747 35.51973 -23.942827 0
-34.982594 39.256363 -26.994228 0
-34.33593 37.561928 -23.727846 0
32.545216 33.517952 5.4118595 0
35.283794 32.471153 2.1212077 0
31.448652 33.441223 8.5008278 0
-29.58156 32.278156 9.2604513 0
23.652727 38.882484 -82.335846 0
27.517262 35.986858 -82.256042 0
27.390633 38.930424 -82.220528 0
26.357632 41.010227 -81.675705 0
28.461836 36.704391 -81.048264 0
27.509285 39.15873 -80.44326 0
26.312151 42.039062 -81.0186 0
27.286304 42.423412 -79.723557 0
26.823793 44.490032 -79.676888 0
26.065758 44.489346 -81.726593 0
25.48357 46.068855 -81.740166 0
23.477564 51.450554 -70.959473 0
22.877975 52.612583 -73.860825 0
19.19278 54.600536 -68.983604 0
19.448282 55.123795 -71.267677 0
17.859985 56.170288 -71.805939 0
13.512542 57.557747 -70.63736 0
16.269302 56.777809 -71.154564 0
14.219868 60.063534 -72.230881 0
16.289984 58.825325 -73.203911 0
-30.033211 33.993618 -78.447914 0
38.69025 33.680813 -69.849899 0
43.625034 34.053436 -59.521965 0
43.247963 36.230621 -56.551819 0
41.452446 36.970562 -59.213661 0
-42.657009 35.2005 -40.493336 0
44.68998 33.261963 -30.820984 0
46.882393 31.258245 -32.591137 0
45.282852 35.294407 -36.116261 0
-34.424519 32.571678 -15.860895 0
34.796818 34.200287 1.0905954 0
34.071278 37.138664 -0.071140371 0
29.59284 33.853428 11.756712 0
15.431408 31.981518 32.818619 0
-5.2711525 34.791077 33.050781 0
0.28195778 34.130474 35.686363 0
-1.2581775 34.755554 34.238888 0
34.433014 32.893696 -77.22541 0
33.556164 35.591934 -75.978333 0
35.549763 35.325512 -72.796059 0
33.999302 36.937126 -73.224899 0
-30.491085 38.437912 -74.145813 0
-32.19054 38.434025 -70.576378 0
-31.164581 39.772034 -69.329224 0
-29.664032 41.779419 -69.03141 0
-32.98616 35.737408 -73.263107 0
-31.549749 34.757946 -76.528748 0
38.613869 31.909204 -72.141602 0
46.960327 33.951111 -39.590485 0
-33.553413 34.356049 -18.663979 0
-31.737429 34.80703 -16.876839 0
34.429649 35.157307 -15.295071 0
35.037758 33.570305 -16.262634 0
33.653877 35.816055 -16.345545 0
31.968273 39.224106 -14.75612 0
31.919384 36.944294 -15.290222 0
30.749311 39.636452 -15.179655 0
30.616356 39.31147 -15.810333 0
35.071991 37.483456 -8.3207779 0
33.409466 39.300407 -7.209198 0
34.174973 38.72047 -6.2205415 0
-33.176765 35.824753 -4.2709913 0
-32.221771 36.967545 -4.9488153 0
27.03931 36.412624 13.295858 0
25.417122 38.171936 11.337552 0
24.761898 37.571644 14.73966 0
27.505396 33.359169 19.691017 0
20.625229 33.152096 28.668915 0
16.162897 33.601051 30.885839 0
29.740887 33.243168 -82.233505 0
32.961254 40.760094 -68.882347 0
37.710381 39.885799 -26.158718 0
39.483315 39.449173 -29.042736 0
32.625748 44.499741 -28.683172 0
32.242451 45.070152 -30.668365 0
31.113903 45.488022 -30.407099 0
26.352566 47.968552 -31.489513 0
37.756207 34.274059 -20.252539 0
36.09063 34.8703 -19.01193 0
36.065216 36.062218 -20.843433 0
34.022236 37.2005 -18.331066 0
-31.991762 34.542492 -15.927301 0
-30.215837 37.36618 -13.964898 0
-30.922499 35.909248 -16.137878 0
-29.151028 38.036469 -15.096191 0
-28.061489 39.384773 -15.941412 0
27.061052 36.988903 10.834394 0
27.217085 37.379028 9.7646704 0
25.669855 39.667328 8.5918579 0
23.083395 40.126675 13.746187 0
26.534298 35.739418 16.084467 0
25.86076 35.893799 17.979284 0
-16.980005 34.851227 26.786188 0
-15.674247 33.170849 29.401178 0
-12.581102 37.515762 26.880091 0
2.2363064 35.73011 34.024113 0
28.983303 35.226032 -81.983833 0
36.745438 35.310902 -71.011261 0
38.037239 36.057926 -22.813223 0
33.704731 38.571415 -21.508007 0
33.630363 37.794495 -19.487186 0
35.768654 38.908691 -23.313732 0
32.942822 39.806644 -22.326588 0
34.239983 40.72139 -23.380455 0
35.958984 34.463955 -13.829212 0
-26.714514 35.088291 8.9600906 0
10.427062 37.600079 29.441038 0
13.88831 37.915943 27.574301 0
9.1960669 39.522007 27.908894 0
16.799877 37.037781 27.436052 0
20.487085 37.730396 23.840336 0
15.863331 39.736618 24.254778 0
12.57673 36.424652 30.114372 0
28.199743 40.517052 -78.693871 0
26.036797 43.494778 -78.642845 0
27.152592 47.640259 -73.675606 0
23.874744 51.349411 -73.56218 0
26.619385 48.387741 -72.318573 0
-30.145227 37.597595 -75.741684 0
-28.127083 42.94368 -69.817688 0
34.291332 38.435608 -70.34523 0
-41.057667 35.834911 -52.121433 0
40.32552 36.452805 -25.885633 0
27.546503 39.393654 4.9489965 0
27.73583 37.82304 7.0812712 0
25.247702 41.463276 4.5169549 0
26.747213 42.36483 2.771018 0
25.432026 43.985855 2.5808899 0
21.572844 44.895508 1.3679469 0
-12.707892 35.748871 28.659592 0
8.0562153 36.47414 31.989647 0
33.333954 41.796982 -66.313438 0
-39.663658 35.558357 -57.504543 0
-40.089813 36.891132 -53.988564 0
-36.547398 42.533802 -48.934315 0
40.846272 40.013081 -32.753124 0
42.415623 39.660145 -36.284058 0
40.399521 42.401939 -35.620739 0
39.283798 43.684006 -36.931946 0
40.227661 43.379616 -39.539204 0
38.515717 44.731861 -40.685326 0
36.997654 44.968204 -37.305916 0
36.71357 45.930054 -40.041603 0
43.853344 37.414623 -36.215546 0
42.557091 37.199093 -31.233339 0
40.919411 37.290096 -27.916613 0
-33.349091 36.360542 -21.508045 0
33.774876 36.90432 -14.725598 0
34.733467 36.644684 -14.03196 0
33.844269 39.621571 -14.1627 0
33.746948 36.562878 -10.608208 0
33.099979 40.532967 -13.049371 0
32.237656 40.111355 -10.940664 0
31.904768 39.076473 -8.9017582 0
30.686394 41.111343 -9.1176891 0
29.124851 41.953957 -6.9242449 0
34.778515 35.932007 -11.897239 0
34.188759 38.797928 -13.104966 0
33.809719 37.214649 -9.5143633 0
-30.733753 38.33596 -11.594538 0
-30.068357 40.279995 -14.041718 0
-29.33625 41.800995 -13.363712 0
30.80859 40.954109 -0.53645277 0
33.890526 38.191525 -0.94204754 0
32.10194 40.333447 -2.1710267 0
21.809605 38.179108 20.9328 0
-35.364994 39.827049 -28.693996 0
-32.724815 42.106796 -27.586988 0
-32.814301 37.916298 -22.851851 0
31.629982 39.973179 -17.055832 0
31.85358 39.639179 -18.776554 0
29.322762 41.807457 -19.25507 0
30.747686 41.186737 -17.358673 0
29.47743 41.922688 -16.155354 0
26.827469 42.872536 -14.852143 0
26.573008 44.125084 -13.884455 0
29.147177 44.299141 -13.975944 0
31.173885 42.853233 -13.44408 0
28.911003 44.159527 -13.29139 0
31.836241 41.478355 -12.406684 0
27.763597 43.02058 -11.823767 0
27.474113 43.216774 -10.695644 0
25.913002 43.594715 -10.888333 0
26.012123 44.632442 -8.7714891 0
24.500954 44.995258 -10.839869 0
25.295074 43.767021 -6.3533478 0
-31.080462 38.206215 -3.7052011 0
-28.96693 38.936867 0.14992888 0
-20.955353 40.635113 6.6135874 0
-19.032085 41.50449 8.0167456 0
-20.2409 42.657158 5.7902269 0
-18.121332 43.888485 6.4421091 0
-19.619913 43.887386 4.5761704 0
-16.589542 45.253811 4.4830804 0
-14.429092 46.682449 3.8569822 0
-15.445465 46.508995 2.5422592 0
-8.2937584 48.896431 -4.954247 0
-5.5946198 49.10104 -5.3303213 0
-5.8268814 47.870392 -7.4371228 0
-7.6981778 47.121323 -7.4607925 0
-6.5978222 45.588139 -9.1637421 0
-8.6002903 44.997787 -9.1201534 0
-11.489765 45.407986 -9.4405851 0
-8.6399107 44.20446 -11.567929 0
-11.479859 45.216835 -12.251688 0
-12.208586 44.04813 -13.735859 0
-11.087217 43.655922 -14.270205 0
-13.093445 43.558167 -14.32377 0
-12.747361 43.943958 -17.241959 0
-14.364027 43.390129 -19.800293 0
-15.457156 43.527035 -21.241394 0
-21.60813 36.979496 16.439651 0
-18.751827 37.557064 21.409285 0
-15.274823 37.907257 24.209263 0
17.963043 40.8116 -82.402321 0
19.764 43.548199 -82.619995 0
24.947998 43.548199 -82.619995 0
-28.02326 39.010872 -77.329613 0
-24.24901 45.013485 -79.731644 0
-23.624054 46.086891 -80.26712 0
-22.570744 49.003731 -76.664742 0
-33.49287 38.245808 -68.330307 0
-37.713276 40.183975 -51.954887 0
42.782528 40.681347 -45.67263 0
43.90374 38.629185 -39.963753 0
-29.581549 39.206753 -22.22785 0
-28.658144 39.452084 -21.191963 0
-26.595791 41.572968 -22.870281 0
31.872389 38.898895 -20.235319 0
-29.683561 39.928802 -10.973124 0
-26.728256 41.141026 0.41930473 0
-22.10379 43.611904 2.7995923 0
-25.182905 43.007648 -1.2593914 0
-24.490021 41.568565 3.0142667 0
-22.163082 42.402584 4.584126 0
-22.289707 39.061115 7.8837581 0
-24.384546 39.173973 5.127646 0
-24.110092 38.156162 6.3150468 0
-19.410807 40.574471 10.945873 0
-20.303993 38.995491 13.468248 0
13.994877 40.006512 24.776709 0
13.13804 42.073769 20.699951 0
10.844054 41.222221 24.286539 0
-11.683369 39.026531 25.547731 0
25.981525 40.475876 -82.00386 0
29.504707 40.202091 -76.814529 0
28.900339 44.97942 -73.891212 0
27.49638 43.801651 -75.350914 0
27.981285 45.219654 -77.274414 0
26.143555 44.135094 -78.057388 0
26.792864 42.871334 -76.227821 0
-36.04071 41.867165 -52.409332 0
40.132996 43.176552 -46.383904 0
39.184635 44.180687 -45.308762 0
37.300163 45.834824 -44.796818 0
37.39439 45.469971 -42.620216 0
34.796143 47.851097 -41.702793 0
-34.000885 43.136715 -54.165146 0
-35.266678 43.971169 -48.251419 0
-33.855095 45.023064 -49.916725 0
-36.691013 42.827499 -44.08287 0
-33.390511 40.296989 -25.531261 0
-26.476719 43.761795 -24.607956 0
-31.488304 42.000122 -25.979349 0
-28.495064 39.316483 -18.604404 0
-25.437901 41.426853 -15.176446 0
-23.806025 42.916782 -15.78368 0
-26.370087 42.996716 -16.90737 0
-24.296267 44.132446 -16.668461 0
-24.708153 43.533718 -17.80839 0
-24.438524 44.417133 -17.898333 0
-23.105228 44.073483 -18.711103 0
-24.163391 42.380066 -19.104551 0
-21.286951 42.766392 -19.456436 0
-22.138971 40.41024 -19.959858 0
-20.924448 41.545345 -20.392704 0
32.422573 40.947006 -14.070024 0
-28.748627 39.879318 -1.399716 0
-23.255857 43.959366 -1.0104756 0
-23.144407 43.558182 -3.7476809 0
25.154718 40.68174 6.5280957 0
-16.087524 42.089588 12.542701 0
-13.144583 43.727234 12.443293 0
-5.5597467 44.082077 19.189211 0
-2.1050606 43.924 20.760548 0
-3.1371551 44.268303 18.813816 0
-6.5344362 42.589462 22.501249 0
-7.3979564 43.570377 19.675182 0
-5.9053082 44.776115 13.830306 0
-3.9091103 39.255455 28.534868 0
-2.3411174 41.781425 25.678049 0
5.8581238 43.179043 21.736526 0
-23.332409 44.614975 -80.629158 0
-22.425348 43.335754 -80.46537 0
-23.50639 43.967377 -81.796013 0
-23.342422 45.205814 -82.233109 0
-22.678377 46.137596 -82.619995 0
-21.708 44.584995 -82.619995 0
-24.365551 40.60244 -81.153976 0
-23.896669 41.758392 -81.722549 0
-23.482067 41.812824 -82.322258 0
33.333046 43.27998 -63.061771 0
43.159306 40.115246 -41.873196 0
-32.983826 45.092926 -37.114498 0
-31.538097 44.976112 -33.118996 0
-29.92145 45.712196 -33.06953 0
-36.262291 42.956802 -37.349697 0
39.402222 41.176098 -31.135393 0
-30.924675 40.828682 -23.701649 0
29.836739 40.526432 -21.850409 0
30.735832 39.613167 -20.296923 0
28.531187 42.799969 -17.162762 0
28.588993 40.832935 -15.747473 0
27.512711 43.074028 -16.506552 0
26.40329 42.621693 -15.795694 0
-25.593622 40.462673 -19.948467 0
28.823797 41.094845 -21.411573 0
-25.992382 42.234188 -18.918249 0
-28.145624 41.26083 -16.972466 0
28.113913 40.816845 -15.371972 0
-24.576748 42.568573 -14.596475 0
-27.343418 42.733711 -11.072841 0
-25.728045 43.72987 -11.555141 0
-23.208288 45.295437 -9.4337406 0
27.956249 43.659851 -2.187444 0
29.205645 42.691666 -3.2378812 0
20.428289 39.711533 17.03516 0
19.277559 40.628716 16.820604 0
19.179264 41.890442 14.54943 0
21.543066 40.813766 14.681867 0
14.966013 42.705002 15.744711 0
17.826441 41.077671 17.760483 0
-6.1649179 40.940086 25.362663 0
2.3594418 41.315891 26.704624 0
2.6965723 43.838451 21.140747 0
25.102188 42.446869 -82.456345 0
25.270378 44.064003 -82.619995 0
28.716133 43.513878 -73.081589 0
29.286003 45.119724 -72.558533 0
-30.399523 45.619884 -59.94701 0
-28.552338 47.132797 -59.594528 0
36.157131 46.815689 -47.182339 0
32.945698 49.044029 -48.913265 0
34.864635 47.85358 -45.693626 0
34.058231 47.609383 -51.232964 0
36.821148 45.90971 -49.478508 0
36.387035 45.262527 -54.278271 0
37.611073 42.742577 -55.169411 0
36.337624 43.264008 -57.083652 0
38.509544 44.317558 -48.914085 0
40.893211 42.931618 -42.123009 0
-36.971241 42.858406 -41.382576 0
-28.754034 42.31702 -24.300201 0
28.826031 41.955204 -22.806953 0
30.427507 43.785599 -24.472507 0
27.616692 43.910683 -24.275839 0
25.914976 43.752312 -23.351042 0
24.156752 44.552807 -24.629587 0
21.623074 45.260521 -25.173874 0
18.922998 45.00071 -23.493887 0
20.2612 45.858414 -25.404598 0
18.134878 46.019226 -24.196507 0
18.583151 46.998482 -27.077267 0
16.457701 46.643272 -24.510174 0
17.063522 47.959999 -27.497053 0
16.460119 49.442329 -29.029102 0
15.096836 47.379681 -24.91371 0
13.968057 49.377716 -26.154358 0
31.478241 40.8027 -22.991459 0
26.529327 42.804775 -21.39459 0
27.383404 42.838173 -18.550917 0
-22.462963 40.570045 -20.776419 0
-27.734119 43.462914 -12.82037 0
30.949371 41.400818 -11.064083 0
29.788471 42.497726 -9.5078335 0
28.363268 42.468662 0.58600765 0
24.02879 40.879662 9.1186476 0
-15.480989 43.597481 8.8730803 0
-16.567472 43.70755 7.6238079 0
-15.47785 45.336643 5.3256226 0
0.025270965 43.240799 22.987299 0
-2.567153 48.392208 5.8933363 0
0.35025388 49.034752 5.5658131 0
-1.8478942 49.925243 2.4954917 0
1.1922046 50.350235 2.1485419 0
-3.0057294 50.249229 1.6360567 0
-4.151329 46.366241 9.6891794 0
-2.760478 46.958511 7.8011684 0
-5.7605724 46.772339 8.272089 0
-6.3746653 45.643452 10.772611 0
-7.9069901 45.786777 8.0168667 0
-13.538011 47.528385 2.3358178 0
-10.41091 47.977291 4.335928 0
-9.5555286 49.245869 1.4242632 0
-7.8377256 49.725327 -0.25715682 0
-4.7874761 49.838314 2.1743941 0
13.283999 43.548199 -82.619995 0
13.931999 42.511395 -82.619995 0
-19.599783 41.712254 -82.441238 0
-16.524 44.584995 -82.619995 0
27.568941 43.022366 -75.357544 0
-30.902256 46.000832 -57.732758 0
-31.909412 43.580776 -58.560005 0
-29.135447 47.319263 -57.326065 0
-27.153156 48.948654 -57.690979 0
-27.452097 48.740543 -55.654861 0
38.395618 42.975029 -53.308022 0
37.365978 44.636795 -52.161758 0
35.119507 47.9669 -43.506252 0
32.628063 49.406521 -44.123276 0
-35.473911 43.912476 -37.980019 0
-31.370398 46.410713 -37.045635 0
-29.583193 47.96283 -37.923241 0
-34.581257 44.846653 -43.218479 0
31.332775 46.815048 -32.145279 0
34.375996 43.353565 -26.769186 0
32.757957 42.281441 -24.167397 0
33.220341 43.761139 -26.333721 0
28.851131 44.998425 -28.396721 0
-29.250296 43.915436 -26.149563 0
27.646009 41.705215 -22.158436 0
-19.875484 42.658031 -22.314299 0
-17.318838 42.273979 -21.242582 0
-17.991684 44.007847 -22.901014 0
-15.617505 44.118736 -22.442406 0
-22.326189 45.210323 -17.695507 0
-21.705597 46.128849 -14.10284 0
-22.942631 45.216934 -16.730572 0
-22.616842 45.341064 -14.952947 0
-23.089808 44.42189 -15.918853 0
-21.763893 43.794048 -15.15782 0
-27.511919 43.560841 -14.371981 0
16.710905 42.614098 12.044851 0
16.247179 43.148693 13.922343 0
15.3883 43.886383 10.952118 0
-12.880932 42.130562 18.663607 0
-5.1438732 41.98175 24.001247 0
14.58 43.548199 -82.619995 0
-0.97200006 44.584995 -82.619995 0
-6.6625409 42.417404 -82.382416 0
32.414883 43.430138 -65.317619 0
33.520542 45.093288 -62.267689 0
35.19508 43.092495 -59.693142 0
33.652683 43.984333 -62.402225 0
32.454956 46.003616 -63.558933 0
31.88833 46.984138 -61.915665 0
35.472466 45.254005 -57.413433 0
-33.804138 44.24836 -35.122452 0
38.15493 43.868713 -33.131626 0
-31.764246 43.720657 -28.186501 0
25.057827 43.314018 -21.417515 0
-24.026308 43.942726 -24.922037 0
-25.518438 44.650364 -26.955427 0
-19.092537 42.610535 -20.621017 0
-23.46475 45.409534 -18.395752 0
-24.602247 44.886208 -17.329279 0
25.811621 45.153721 -12.836987 0
26.635448 44.315193 -13.018883 0
24.206615 43.04166 -14.962337 0
28.049414 43.883118 -9.2993298 0
26.356016 43.983025 -7.5735335 0
27.604637 43.33395 -0.45892707 0
-21.146185 44.955338 -1.6091918 0
-19.390642 45.412048 -0.11735608 0
-18.804001 46.340488 -1.6153891 0
-22.420555 44.581306 -4.4153786 0
-21.741333 45.148949 -4.7488136 0
-13.896344 44.39999 7.4320126 0
-13.380941 44.101143 10.250467 0
-12.126847 44.824764 6.912086 0
-27.002384 45.354408 -71.60498 0
-27.692596 44.149208 -69.759201 0
32.28775 48.777126 -51.756447 0
39.661003 44.049896 -42.778847 0
-33.011402 46.321217 -45.568855 0
-30.569754 47.730392 -46.048286 0
-33.585125 45.43071 -40.572044 0
-29.287025 44.645889 -29.498779 0
-11.896244 43.760288 -19.815939 0
-6.665257 48.241402 -20.872675 0
-8.212225 47.069984 -21.501329 0
-6.5645905 46.735157 -19.525209 0
-5.5123525 49.612614 -22.791595 0
-5.4684472 49.711624 -20.31604 0
-5.1420059 50.865448 -23.005802 0
-6.7966037 48.652344 -23.25927 0
-15.253886 44.940739 -13.751067 0
-16.386694 44.64917 -15.403449 0
-17.044044 45.356827 -14.882999 0
-15.727902 46.322773 -12.766038 0
-19.398304 46.258217 -11.597971 0
14.45259 43.572617 -19.038803 0
15.221176 44.806507 -21.560266 0
11.868866 43.872025 -18.30254 0
7.1647391 60.198902 -19.746246 0
8.0757904 56.9631 -19.934631 0
8.9146986 59.876274 -23.108904 0
7.8615522 65.01664 -24.365076 0
8.4284849 65.919563 -26.623808 0
7.6229234 68.090019 -26.527555 0
2.7145581 73.155685 -30.206181 0
4.4219942 73.202766 -28.643372 0
3.7033453 72.683121 -31.700102 0
4.231463 71.19175 -33.963665 0
5.5935326 72.399734 -30.153671 0
5.9177942 70.024025 -33.502144 0
7.1855454 67.707726 -34.359737 0
8.336606 67.984764 -33.614563 0
7.7472792 66.273499 -34.938694 0
10.057578 65.245079 -35.109905 0
11.532891 61.705444 -37.59293 0
13.889385 59.590576 -37.779015 0
12.932604 59.593685 -38.623108 0
10.623358 58.967865 -39.658817 0
12.070491 59.084499 -39.035515 0
10.625915 57.527187 -40.155231 0
-10.14032 43.798805 -18.611759 0
-10.756334 43.874058 -17.826767 0
-10.560386 44.956558 -20.975395 0
-14.893924 44.259712 -18.270596 0
15.494604 44.796402 -9.4974422 0
13.34745 43.606743 -8.8815689 0
15.435831 45.180435 -8.440114 0
6.5030427 49.521439 -2.8355737 0
5.6335545 48.772636 -5.0726976 0
4.4483185 50.037544 -2.0794599 0
2.0970664 50.353447 -0.59840363 0
1.1984025 50.367882 -3.8466477 0
-2.2365966 50.344234 -0.26045659 0
-2.7840443 50.311497 -3.8914001 0
-2.6058655 49.664291 -5.8180609 0
15.453259 43.494972 -15.346434 0
9.2344627 49.16758 -19.642031 0
11.23709 44.525257 -18.959505 0
-6.9907298 43.745403 -17.292856 0
-5.0251112 44.509529 -16.588919 0
-5.5602732 44.78693 -17.642187 0
-5.367794 47.628525 -18.594765 0
-4.6638503 47.416527 -16.873396 0
-4.5218301 43.462837 -12.44657 0
-3.8414309 45.073864 -15.323864 0
-5.8132915 43.970825 -14.983774 0
-6.9420795 43.553734 -13.161554 0
-8.6991329 43.506824 -16.233669 0
-14.3727 44.223881 -16.592026 0
-16.434793 43.62175 -14.00086 0
-14.50308 43.948086 -13.732565 0
-14.115699 45.97699 -13.00565 0
-15.497229 45.437237 -7.117147 0
-17.067549 45.702332 -6.3986645 0
-16.034109 46.599567 -4.8676009 0
-16.999043 47.149227 -2.8955386 0
-18.978409 46.086433 -4.6232662 0
-20.258877 45.63821 -5.8300085 0
-20.618238 45.774837 -7.474515 0
11.665642 43.614422 -15.860241 0
11.865909 43.537216 -13.693801 0
10.353682 43.486378 -15.40122 0
8.7407484 43.47805 -13.311332 0
6.8228364 44.641197 -14.544515 0
9.2966156 44.654907 -16.131039 0
8.4821014 46.849831 -16.574539 0
7.4264727 46.869995 -15.398742 0
7.1774673 51.649315 -15.530011 0
7.0249648 49.738056 -13.982135 0
6.3511109 50.14399 -12.902081 0
5.7143664 55.708878 -15.66036 0
5.3875084 51.757858 -12.653304 0
2.8550045 54.378471 -12.573925 0
4.2637281 53.254578 -12.568953 0
4.3955564 56.563423 -14.847999 0
2.582582 56.361649 -13.920421 0
-0.052060492 55.017723 -13.178457 0
-0.77346528 58.110863 -14.901564 0
-1.502386 56.860012 -15.011833 0
-1.9314381 58.572395 -16.478596 0
-0.30629903 59.783543 -16.207119 0
2.0857542 60.021049 -16.108999 0
3.5023928 59.455791 -15.957071 0
-8.0008497 44.992615 -19.336771 0
10.210678 44.56139 -17.163525 0
7.7949495 49.605488 -17.408001 0
14.317703 44.169872 -11.539381 0
10.358815 43.530289 -11.051904 0
8.6242619 43.532749 -9.6311255 0
-23.934582 45.646221 -13.973014 0
-25.835711 44.294285 -13.818516 0
14.987262 43.718246 -12.936567 0
-6.3127384 44.212101 -11.266352 0
-2.9377389 49.768883 -13.891343 0
-2.7242403 49.626415 -11.787285 0
-2.4647787 52.020073 -13.842202 0
-2.1398094 63.108444 -18.621136 0
-2.2765791 65.149818 -21.007256 0
-3.8848462 64.366577 -21.877417 0
-3.6614668 63.579052 -20.730057 0
-3.1212876 61.095261 -18.418913 0
-3.8824785 60.276772 -19.061213 0
-3.9682269 56.768948 -17.603121 0
-14.864285 46.380825 -12.244544 0
-17.362465 46.154526 -8.4388256 0
-13.815869 45.710876 -8.6854992 0
-4.9284472 45.522972 -10.629124 0
-25.821329 44.716782 -13.141303 0
-23.756163 45.290428 -11.206597 0
13.173053 45.974968 -7.5061903 0
7.8393097 46.217541 -9.4992838 0
7.7887297 44.12394 -11.984426 0
6.5846577 48.265461 -11.956049 0
5.2062612 50.189968 -11.011659 0
5.9978189 49.205593 -10.823961 0
0.45804441 52.484077 -10.824166 0
10.124938 44.282085 -9.0681858 0
7.0188737 43.546883 -9.0372181 0
8.3652153 45.044762 -9.6421671 0
6.645853 47.599449 -7.8731837 0
5.554894 48.43898 -7.8582582 0
3.8623381 49.426914 -6.8935914 0
3.9049447 49.633202 -4.7846851 0
2.5397191 50.307358 -6.4482765 0
-1.3310114 49.9916 -9.1834211 0
1.1812179 49.721657 -8.6787205 0
2.9164453 49.510117 -9.3859844 0
-2.7281582 48.994373 -10.897919 0
-1.4918966 50.488247 -10.266396 0
-2.2666116 50.8032 -11.339005 0
11.31565 43.965538 -8.8049564 0
8.5937195 45.996986 -8.6675301 0
11.210905 45.913265 -8.0857391 0
7.8318219 44.340073 -10.044656 0
22.03854 46.020767 -4.9949636 0
23.253906 43.471985 -6.5571904 0
22.639559 43.862064 -6.3374691 0
20.37607 43.607044 -6.6406317 0
-22.644016 43.760651 -5.4718533 0
22.696257 44.28804 -6.6459608 0
19.924236 44.314034 -6.5350132 0
17.944983 43.781151 -7.229032 0
26.208263 44.063095 -1.2440951 0
-20.346413 44.519962 1.4884888 0
-17.238815 46.954624 -0.40953946 0
-15.168718 48.246258 -1.9409013 0
-14.328966 48.120155 -0.041557014 0
-13.593957 48.445496 -2.16588 0
-10.438009 45.385502 8.0777969 0
7.7171311 44.956188 13.371517 0
2.6013906 45.150696 14.768817 0
4.4536834 46.074013 11.773351 0
2.7179601 44.425873 18.479519 0
25.270378 45.100803 -82.619995 0
24.329975 47.794189 -80.838867 0
26.211159 46.657791 -78.540764 0
22.831493 50.320877 -81.01416 0
25.32168 48.14053 -77.925629 0
19.266802 55.652802 -73.319656 0
4.2119999 44.584995 -82.619995 0
-6.1560001 44.584995 -82.619995 0
-11.34 44.584995 -82.619995 0
-22.063601 48.142117 -79.915024 0
27.374577 45.247677 -78.225952 0
28.897921 46.012726 -72.034843 0
25.681442 49.393871 -70.108459 0
25.224419 50.495541 -67.387047 0
21.75461 52.951672 -68.821419 0
16.293015 56.368786 -69.475838 0
-24.428526 48.246048 -69.638962 0
28.094032 47.664707 -69.017006 0
21.207581 53.911533 -66.899124 0
18.489168 55.617104 -67.112167 0
16.431473 57.09272 -67.166069 0
15.839401 57.62162 -65.506859 0
29.806488 49.85891 -59.790844 0
-25.007282 50.412247 -58.565308 0
-22.820633 48.234596 -31.530821 0
-21.09 49.01474 -32.688702 0
-23.857151 48.555359 -33.582233 0
-22.601494 48.955719 -34.349865 0
-21.455059 50.145584 -36.143044 0
-27.913963 45.332504 -30.428383 0
28.394979 46.811985 -30.324009 0
19.959335 49.247597 -30.353842 0
18.101761 50.047203 -31.229847 0
-25.883032 44.852974 -29.068727 0
-24.183954 45.408508 -28.318098 0
-23.60306 46.406456 -29.316963 0
-25.704435 46.955009 -30.709534 0
27.2386 45.015751 -27.297821 0
25.012177 44.87249 -26.293968 0
23.054651 46.152092 -27.208698 0
20.823191 47.705662 -28.698042 0
17.976892 49.068802 -29.417915 0
14.363675 50.887405 -28.253471 0
-20.506762 46.582092 -27.545353 0
-16.231039 49.262424 -31.223492 0
-20.133898 48.056023 -30.01354 0
-19.061886 46.659103 -27.100534 0
-12.881722 48.640129 -28.469011 0
-12.914829 49.314873 -30.20285 0
-13.720551 50.0788 -33.316429 0
-11.911988 50.0093 -31.947697 0
25.376812 46.544983 -28.636864 0
14.854141 46.451683 -22.961874 0
12.44696 45.481174 -20.579702 0
-23.489315 46.274094 -13.205803 0
-26.278198 45.268906 -17.647802 0
6.6629014 47.990459 -12.963423 0
23.820818 45.19096 -12.614611 0
-2.5234308 46.338642 -13.689452 0
-3.2100861 47.649624 -15.062394 0
-3.469866 48.429298 -16.082479 0
-3.3915107 50.589531 -15.17569 0
-3.0882456 52.341824 -14.910586 0
-2.5072007 45.533005 -13.076015 0
6.8589735 45.402283 -13.170465 0
-3.4263282 46.546482 -11.275876 0
-4.4289589 46.488251 -9.3318424 0
-9.95644 47.445324 -7.1005869 0
13.126667 46.807182 -6.893188 0
22.789555 44.959854 -0.73342746 0
-17.393854 45.004219 2.6429024 0
-12.536813 46.824547 5.2560024 0
-8.6462851 47.887215 5.3788514 0
-10.765579 46.15818 6.3956604 0
-2.1729586 45.264023 14.134302 0
-0.16058648 44.998718 16.010508 0
2.8384168 46.4133 10.112185 0
0.74007547 45.709785 12.862101 0
-20.166889 51.971802 -78.666634 0
-18.742262 53.746948 -80.34613 0
-19.928734 50.691689 -81.35125 0
28.382256 45.884899 -74.885353 0
-26.353619 49.199135 -60.518127 0
-26.073513 48.446526 -63.526253 0
-22.692368 50.224716 -65.64341 0
-23.34944 50.196709 -62.417751 0
-19.294306 52.780491 -63.292557 0
-18.567972 52.626724 -60.856735 0
-17.769526 53.787552 -63.415184 0
-20.27747 50.793785 -59.769508 0
-23.452106 52.507225 -52.639385 0
-31.222515 47.3694 -41.829742 0
-28.941181 46.879936 -33.985504 0
-26.695961 49.424881 -40.600864 0
-16.535501 46.42337 -25.57169 0
-21.83275 45.903034 -10.362555 0
7.046669 48.238953 -6.0207224 0
-20.069992 46.209888 -8.9528742 0
9.6488104 48.621231 -4.9935961 0
-13.76564 47.084778 -6.1083269 0
-12.061736 47.617271 -6.0161395 0
-11.046897 45.741856 -8.0406418 0
21.831205 45.568344 -7.3976965 0
-9.8267765 49.202198 -4.2190752 0
-12.034079 49.17551 -1.8554171 0
15.484056 46.707726 -6.0528126 0
11.788804 48.913288 -4.097611 0
12.870089 49.347473 -2.3291759 0
13.767382 49.329582 -1.5147433 0
11.500327 48.626476 2.7155304 0
11.420442 49.25087 -0.17042989 0
8.4942865 49.34964 2.4269171 0
18.7099 45.789097 3.3965189 0
4.9589424 46.967976 7.5001955 0
4.7217207 46.31636 8.6878929 0
5.7746005 46.113396 10.731258 0
7.8233705 45.624065 9.7367258 0
-3.2365639 46.017708 11.790937 0
-1.4641495 46.652668 9.5084152 0
1.665463 49.533115 4.2338538 0
-19.764 50.800606 -82.619995 0
-22.450323 47.275337 -82.008301 0
-24.900297 48.244278 -68.004242 0
-26.895893 47.619003 -33.387596 0
16.629168 50.48745 -31.075062 0
-11.42239 49.688477 -29.446453 0
-5.5751548 52.878941 -22.313143 0
-5.1082563 51.309975 -20.412233 0
-4.9513178 54.899902 -20.291645 0
-5.8279295 54.895252 -22.151566 0
-7.1453352 57.215744 -24.314053 0
-5.4761434 58.904503 -22.070742 0
-6.6433549 60.85363 -24.795033 0
-8.0723476 57.834427 -26.881172 0
-7.6912336 60.243904 -27.271423 0
-7.1307554 62.321167 -27.905809 0
-7.3233094 65.063538 -28.925741 0
-7.6439176 66.334801 -30.251896 0
-9.2774248 60.079605 -28.804821 0
-2.6811988 49.144791 -7.9761858 0
-3.3974235 48.409008 -7.4619608 0
11.91977 47.942902 -5.9837723 0
-6.4961395 47.560555 6.7265453 0
-4.0941062 49.62355 3.1471326 0
6.0482349 48.198345 6.2056994 0
2.3504951 47.336773 7.7335477 0
-1.1275573 47.434177 7.6633921 0
-17.877934 55.050907 -72.669762 0
-17.925674 54.180935 -71.378166 0
-15.457009 56.806576 -71.571999 0
-16.391479 56.767105 -73.84584 0
-14.360877 58.361073 -72.045494 0
-11.748179 62.970192 -80.984581 0
-13.196007 61.839836 -79.337753 0
-10.025959 64.269142 -80.391602 0
-8.1000004 65.315796 -82.619995 0
-9.5288877 64.538757 -81.821785 0
-7.2970109 65.908272 -80.858421 0
-6.3327885 66.638954 -80.461945 0
-4.5936384 67.137901 -78.916206 0
-7.0196705 65.776558 -76.166557 0
-6.1709886 66.154091 -77.942314 0
-9.7238779 63.962833 -78.569328 0
-9.9489508 64.22892 -76.215355 0
24.504539 47.790482 -82.068253 0
22.030378 50.284798 -82.619995 0
23.59796 50.605072 -79.137596 0
22.504669 52.689453 -75.832016 0
-17.788437 54.665367 -81.421089 0
-19.838438 51.220001 -82.313919 0
-20.523758 51.920547 -76.877258 0
32.089539 49.513924 -46.363636 0
29.929083 50.433418 -49.139553 0
27.936096 51.375244 -47.098942 0
27.471081 51.928226 -50.108269 0
25.32761 52.496864 -45.840881 0
27.963848 51.594059 -44.802734 0
24.406315 53.116234 -46.887951 0
25.938236 52.844452 -48.614311 0
22.559889 55.959499 -48.549976 0
30.645695 49.995132 -39.943569 0
25.570807 52.187832 -43.190601 0
-3.9138663 49.907528 -18.002371 0
-1.2006248 49.800346 -6.5525603 0
-5.5085301 50.252716 -0.32636738 0
-3.5926352 48.328533 5.6731305 0
22.555708 50.850052 -81.835785 0
27.413095 52.104919 -57.462532 0
29.415569 50.429207 -50.895855 0
-25.097065 50.702652 -51.218987 0
-15.231731 51.8442 -39.513161 0
-11.198661 53.986286 -39.52565 0
-16.499903 49.966782 -33.653206 0
8.1564226 54.278255 -19.353117 0
6.9691963 55.88475 -17.278061 0
-3.9491026 54.554218 -17.303997 0
4.0811348 48.850681 -8.57689 0
2.9746246 48.712879 -8.8112087 0
-0.78298861 53.028046 -11.782561 0
0.95473659 50.232609 -6.9604654 0
-7.5099325 49.684727 -2.3541615 0
8.4033766 49.355484 -3.7586708 0
10.791849 49.345131 -2.4166958 0
6.0118618 49.786942 1.9551095 0
22.06056 52.601227 -79.581352 0
19.359219 55.223694 -64.077995 0
18.135405 56.327835 -62.988258 0
17.750233 56.511429 -60.998085 0
15.752484 58.824276 -62.469765 0
14.814306 59.512108 -60.891808 0
12.336428 61.51273 -59.63995 0
14.845288 60.192528 -58.684887 0
12.115675 62.878147 -57.528011 0
13.710896 61.556606 -56.83427 0
10.053274 62.964504 -59.022633 0
6.7688975 64.339111 -55.325233 0
7.8085957 65.061172 -56.319988 0
5.0689363 64.876701 -55.632713 0
5.5103331 64.788925 -54.635052 0
27.122049 50.052731 -64.603333 0
-21.576107 50.936069 -61.728325 0
-24.465727 50.046577 -60.691296 0
-21.63987 53.229771 -48.93478 0
22.001614 52.713802 -42.603424 0
-17.754063 50.251228 -35.516838 0
-15.033636 50.773819 -36.332661 0
-10.38575 50.763237 -31.568104 0
13.099932 51.660637 -26.935291 0
-6.7156873 50.023495 -24.525866 0
-7.8356352 51.785683 -25.662483 0
11.605509 50.713089 -24.960276 0
9.7391949 52.299389 -21.922314 0
-6.109499 61.091286 -23.603998 0
-4.8033853 61.278378 -21.616743 0
-5.5635395 63.160538 -23.657934 0
4.3430567 49.956875 -9.8569431 0
2.3600948 51.819572 -10.435431 0
-0.18886763 50.767639 -10.005019 0
-4.981019 50.060181 -2.5156806 0
5.2818346 50.398838 0.28865135 0
7.7987761 49.730698 -0.66625255 0
22.030378 51.321598 -82.619995 0
20.632195 53.987717 -81.561783 0
21.059999 52.874203 -82.619995 0
-18.790379 52.358398 -82.619995 0
20.89901 54.822838 -79.639626 0
-20.777775 51.998329 -63.783142 0
24.768452 54.224712 -50.006638 0
-19.99271 51.618298 -42.464405 0
-17.433062 52.402145 -43.002556 0
-20.985649 51.222702 -40.487247 0
-17.884996 51.563534 -40.450832 0
-10.423541 52.045853 -32.24231 0
15.667257 51.679958 -34.781975 0
-7.0960035 53.664284 -24.540388 0
19.018784 56.948593 -80.238647 0
18.63324 55.592728 -81.987541 0
18.467999 54.947803 -82.619995 0
18.14238 55.468803 -82.619995 0
22.017368 53.188217 -77.811981 0
-19.154913 53.232483 -71.903625 0
-17.214668 54.370358 -66.984665 0
-18.85854 52.711807 -69.951385 0
-16.116413 54.388329 -69.981728 0
-11.684406 56.96439 -67.7724 0
-14.626352 55.762749 -66.723785 0
-12.734976 57.424927 -66.134315 0
-17.741636 52.153774 -56.591122 0
-14.791482 57.039177 -58.633644 0
-15.189176 56.081093 -57.194115 0
-13.507925 58.880966 -57.97728 0
-13.149921 58.708485 -60.111423 0
-11.101323 60.30286 -59.637016 0
-9.2757463 61.811535 -59.483658 0
-10.861354 61.759598 -57.130875 0
-10.477637 61.062191 -54.968277 0
-9.1385832 61.712536 -55.324741 0
-6.3573594 62.070984 -53.374596 0
-5.7112374 64.056465 -52.73447 0
-4.2317719 61.970509 -52.943527 0
-3.6799369 63.333462 -53.113468 0
-2.561646 65.729385 -52.7276 0
-2.2501545 64.382393 -53.301605 0
1.9792747 65.74469 -53.91906 0
4.6665139 67.011505 -52.015896 0
4.3387389 65.60556 -53.12286 0
4.5057845 64.199356 -53.275402 0
2.3771973 63.306129 -53.590515 0
4.7212639 62.377346 -53.473454 0
0.99065965 63.036949 -54.292 0
0.42353278 66.007118 -53.502525 0
-0.37678552 64.935181 -53.658169 0
-1.4961833 64.883972 -54.164749 0
-20.744129 52.095585 -45.757401 0
-18.576515 52.661049 -44.508461 0
-16.116619 55.624004 -45.438805 0
-13.772891 54.085648 -41.900314 0
16.491213 52.161263 -37.50346 0
14.880877 52.703972 -37.317596 0
14.52633 52.976604 -36.197865 0
14.806921 53.509819 -34.386028 0
14.915567 56.844433 -35.231018 0
14.097909 53.666245 -37.120453 0
12.775424 52.938232 -38.522854 0
14.835816 58.270725 -36.858463 0
13.105378 57.441769 -38.590443 0
14.662743 54.418457 -39.371952 0
11.20155 54.74176 -39.649685 0
-10.257705 53.93248 -37.301609 0
-11.395356 56.009335 -36.60302 0
-11.362078 59.139671 -36.179916 0
-10.678666 57.101418 -38.056396 0
-10.547898 59.527199 -37.643661 0
-10.080132 60.696209 -37.059715 0
-11.396863 60.629265 -35.114933 0
-9.4054346 53.835663 -38.966541 0
-8.5665407 52.958996 -38.957916 0
15.215723 53.010216 -38.297859 0
14.838943 57.303413 -32.586468 0
14.257846 53.980846 -32.096619 0
11.387058 56.17244 -25.422102 0
10.001056 55.102829 -23.238029 0
9.445035 54.475395 -21.703808 0
9.0687599 61.528885 -24.621452 0
10.251034 59.898125 -27.13324 0
9.2280474 62.356838 -27.295374 0
10.238285 64.535904 -29.449232 0
11.807254 62.451981 -30.229784 0
10.593513 65.422798 -30.626757 0
9.6025715 66.907257 -30.391777 0
10.592106 66.092918 -32.243896 0
8.8930044 68.047302 -31.987074 0
9.5485744 66.993835 -33.276722 0
-1.1414753 54.208759 -13.415725 0
20.412001 52.874203 -82.619995 0
-18.790379 53.395199 -82.619995 0
-14.58 60.131805 -82.619995 0
-14.585424 60.096512 -81.844757 0
-19.171703 53.713802 -77.994461 0
-18.12532 55.03709 -75.742775 0
-16.589474 57.714539 -78.115005 0
-15.018568 58.576328 -75.045799 0
-14.004054 61.068794 -76.986824 0
-17.142708 56.49263 -80.021248 0
20.493727 55.046268 -75.626823 0
-14.571637 55.072487 -68.66021 0
19.916334 52.928596 -57.80146 0
20.981173 52.981918 -57.150211 0
20.381826 56.266159 -54.545265 0
19.230093 54.746986 -60.140881 0
19.216955 54.855556 -56.803249 0
19.126444 56.808994 -56.12006 0
20.419302 54.036781 -55.763149 0
18.403732 58.525272 -55.06813 0
18.868088 52.835522 -56.773197 0
18.730192 54.573547 -58.068768 0
17.214298 57.432289 -58.361324 0
15.786277 59.017044 -57.650272 0
12.739196 61.59396 -56.531113 0
10.886654 63.713478 -56.555878 0
10.840298 60.339863 -55.144234 0
9.65205 63.918545 -55.59515 0
9.490283 60.886932 -54.238064 0
7.8796353 61.176361 -54.319729 0
7.4600568 62.47905 -53.380234 0
9.1821194 62.281837 -53.748112 0
7.9462233 64.083595 -53.640343 0
6.8905325 65.460526 -53.28437 0
5.9066124 66.259254 -52.637161 0
-17.721138 55.811661 -53.464249 0
-17.22057 53.308647 -55.509789 0
-21.397179 53.983978 -51.886715 0
-17.322773 56.511864 -50.716434 0
-20.063915 53.683533 -47.214596 0
20.469509 55.975277 -47.190197 0
20.207865 57.04678 -48.660088 0
20.653019 56.943142 -50.285477 0
22.22443 55.228363 -50.792412 0
22.463881 53.326862 -45.830593 0
21.966394 53.183273 -44.207985 0
-17.004572 55.84103 -47.09359 0
-14.781652 57.647026 -46.420799 0
14.448882 55.978065 -40.49662 0
11.597831 57.941525 -40.453724 0
12.501526 58.661652 -41.606766 0
10.708582 60.191853 -40.894325 0
8.215024 59.385963 -38.753868 0
9.7074356 59.824303 -38.332336 0
15.962186 53.955879 -39.71579 0
-9.5131226 55.663998 -40.010239 0
-8.8105879 54.828506 -39.085072 0
-7.1192541 55.109909 -40.834972 0
12.218554 54.586643 -38.984573 0
12.039418 56.609798 -39.759987 0
-9.2514114 55.047905 -38.711937 0
-8.0881119 56.623974 -39.175552 0
-7.1802626 55.204437 -39.073044 0
8.8391161 67.901489 -28.590399 0
7.7867079 69.981972 -28.551586 0
-15.256234 55.713455 -65.513084 0
-16.40093 55.085743 -63.092628 0
-16.876068 54.37307 -59.930748 0
-13.782717 57.866554 -62.350643 0
17.690634 55.56369 -56.982586 0
16.585331 57.221539 -56.493942 0
15.598968 58.162437 -56.360714 0
13.760713 59.119194 -55.1572 0
16.723881 59.869804 -54.151367 0
14.745798 60.685482 -53.825546 0
15.498404 61.530468 -52.604568 0
16.620325 60.921448 -52.353287 0
15.65085 61.449764 -49.48243 0
14.429147 62.554569 -48.188828 0
12.567517 62.949757 -45.943707 0
15.790701 60.096573 -46.580208 0
-18.709675 55.22987 -49.926182 0
13.809088 62.057732 -33.288662 0
12.248344 64.57196 -33.635822 0
12.429285 63.75613 -35.28997 0
19.116001 54.947803 -82.619995 0
20.437222 55.575195 -77.588654 0
18.375284 58.117561 -77.994781 0
18.464252 57.419956 -75.099205 0
-14.236311 56.086411 -69.98587 0
-11.901972 56.384178 -69.011795 0
9.6188383 59.730385 -67.055038 0
12.28804 58.93536 -67.292053 0
9.3376188 58.933254 -68.414658 0
11.632005 58.132027 -69.839592 0
11.120014 58.197044 -68.791046 0
13.214542 57.950199 -68.818184 0
12.63286 58.238098 -70.21376 0
11.664272 63.189541 -73.381172 0
11.839239 61.704811 -71.086884 0
9.7943592 64.786392 -74.664948 0
6.9090853 67.199997 -76.433853 0
7.7491946 66.095207 -72.723167 0
4.7914047 67.869972 -72.646385 0
5.9922242 67.822418 -74.786499 0
3.6743517 68.060707 -74.671844 0
0.85269743 68.121399 -73.064491 0
1.3851109 66.108421 -68.672424 0
2.258604 67.739365 -71.56472 0
-0.63243276 67.983185 -71.899597 0
-2.3232968 67.15023 -71.419357 0
-5.189518 65.603477 -71.318306 0
-3.6751344 66.69696 -72.222389 0
-4.0509896 63.531071 -68.663193 0
-5.2579622 63.751633 -69.365288 0
-5.2709274 62.558285 -68.029053 0
-4.8626094 61.857422 -68.779602 0
-7.7952394 57.87587 -68.581703 0
-7.8263636 58.253124 -67.30011 0
-6.1896448 59.040176 -67.289513 0
-5.1646476 60.191704 -66.201912 0
-6.3887696 61.163708 -65.054016 0
-8.5393047 59.37495 -66.195274 0
-7.5220318 62.49752 -63.000015 0
-9.3384066 59.896381 -65.069885 0
-10.556082 60.903358 -62.799522 0
-12.32849 59.668953 -61.710899 0
-14.993146 56.73378 -55.549492 0
-12.948755 58.315384 -55.51437 0
-11.386569 60.761036 -54.424648 0
-10.612133 62.047768 -53.21896 0
-9.0611925 61.825806 -53.556171 0
-9.4017096 63.733059 -51.826309 0
-7.7303476 63.970203 -52.523262 0
-9.9483786 63.405563 -49.232948 0
-7.9429493 63.275742 -50.541733 0
-6.3389502 59.0485 -40.166492 0
-5.9928994 59.193344 -38.88765 0
-4.2250152 59.409134 -39.422062 0
-5.0389862 59.281876 -37.855984 0
-3.8291228 60.426559 -36.189533 0
-4.4969907 59.822163 -36.872486 0
-4.5328279 59.121544 -35.890224 0
-4.4927411 58.915257 -34.016315 0
-2.7278199 58.745102 -34.344742 0
-0.058219776 58.826477 -33.970737 0
1.4766217 58.854855 -33.581257 0
1.6062443 58.967056 -35.022717 0
8.0744123 59.043076 -33.852837 0
5.8132124 58.766392 -35.038589 0
7.3724203 59.360085 -32.539104 0
8.02318 60.878384 -33.131702 0
8.8906279 63.141796 -34.717903 0
9.3895969 59.966625 -33.960358 0
10.178915 63.652786 -35.691612 0
-18.134928 55.741196 -51.802296 0
-11.536919 55.767033 -41.976158 0
-10.654469 55.29039 -40.388332 0
13.109744 55.91713 -40.132854 0
-9.4855509 57.069572 -40.808235 0
-8.8463411 57.914364 -40.958035 0
-8.4236202 58.210464 -39.252335 0
-7.4457455 59.254578 -39.069366 0
-8.5641108 60.011635 -38.431183 0
-7.7368288 60.797176 -37.362411 0
-7.364368 59.183506 -36.129799 0
-6.5832586 58.797848 -35.486347 0
13.261209 57.716904 -30.310675 0
11.631247 60.164974 -28.614202 0
17.015753 60.065964 -78.700562 0
16.365271 60.653294 -77.050934 0
13.821425 62.370823 -75.149338 0
12.690683 63.554565 -76.044624 0
-12.285587 58.561733 -64.214249 0
14.441252 59.690067 -56.442783 0
18.17453 57.387131 -46.354088 0
-6.0596356 56.354225 -40.079948 0
-7.6112962 57.538002 -40.133499 0
-3.7858629 60.079517 -38.990303 0
14.81953 59.520851 -32.912987 0
6.6267586 59.852734 -18.288828 0
6.0923128 66.093231 -22.57259 0
5.9635224 69.847 -25.776394 0
4.7281799 68.726868 -23.392414 0
18.14238 57.542404 -82.619995 0
17.213181 59.461849 -81.625656 0
16.068544 60.888195 -81.547882 0
14.707569 62.373039 -78.896126 0
-14.555532 60.460049 -79.152748 0
-12.992098 61.771736 -81.672195 0
-12.684747 59.603603 -72.184891 0
-10.837222 61.863194 -72.930069 0
-11.522518 62.656906 -76.233826 0
-11.186344 62.74818 -78.408745 0
-8.674408 57.830334 -68.976067 0
-7.1189923 62.811447 -69.980156 0
-8.663846 62.880081 -71.86409 0
12.146841 61.430676 -63.530807 0
15.321922 59.068375 -63.708679 0
13.327703 58.998112 -66.400772 0
9.2879896 61.649818 -65.191055 0
7.5462198 59.729942 -66.735275 0
6.4577255 59.896336 -67.636452 0
4.9431958 60.104538 -66.816689 0
4.3717966 61.049622 -65.590813 0
1.57077 62.824806 -64.140457 0
4.8487206 63.451134 -63.715237 0
